# .PCD v0.7 - Point Cloud Data file format
VERSION 0.7
FIELDS x y z rgb
SIZE 4 4 4 4
TYPE F F F F
COUNT 1 1 1 1
WIDTH 1010
HEIGHT 1
VIEWPOINT 0 0 0 1 0 0 0
POINTS 1010
DATA ascii
-0.74817711 -1.7265646 0.80924898 7.3792517e-40
-0.74993849 -1.7231086 0.81092024 8.2976067e-40
-0.75169271 -1.7196672 0.81258452 8.301208e-40
-0.75319111 -1.7157055 0.81450021 8.301208e-40
-0.75403613 -1.7103798 0.81707567 9.219563e-40
-0.72995406 -1.6519939 0.84530985 5.623209e-39
-0.73316038 -1.6519932 0.84531021 5.1625909e-39
-0.73636657 -1.6519922 0.84531057 4.9782011e-39
-0.7395727 -1.6519911 0.84531116 4.7938112e-39
-0.74277884 -1.6519903 0.84531158 4.7938112e-39
-0.74598497 -1.6519892 0.84531212 4.4250287e-39
-0.74919105 -1.651988 0.84531265 3.8722151e-39
-0.75439262 -1.6561151 0.84331691 1.4751287e-39
-0.76805741 -1.6776435 0.83290625 7.1912591e-39
-0.77131528 -1.6776434 0.83290625 8.8507791e-39
-0.77457309 -1.6776431 0.83290642 1.0418103e-38
-0.7778309 -1.6776427 0.8329066 1.1155668e-38
-0.78108871 -1.6776425 0.83290678 1.1708842e-38
-0.78434652 -1.6776421 0.83290696 1.2169819e-38
-0.78760433 -1.6776417 0.83290708 1.2354212e-38
-0.79086214 -1.6776414 0.83290726 1.2538603e-38
-0.79411995 -1.677641 0.83290744 1.2722633e-38
-0.79737777 -1.6776407 0.83290756 1.2815187e-38
-0.80063558 -1.6776404 0.83290768 1.2630436e-38
-0.80389333 -1.6776401 0.83290786 1.1985428e-38
-0.80715114 -1.6776398 0.83290803 1.1616645e-38
-0.81040901 -1.6776396 0.83290815 1.1801036e-38
-0.81366682 -1.6776392 0.83290827 1.2077263e-38
-0.81692457 -1.677639 0.83290845 1.2169819e-38
-0.82018238 -1.6776386 0.83290863 1.217018e-38
-0.82344019 -1.6776383 0.83290875 1.2262376e-38
-0.82669795 -1.6776381 0.83290887 1.2446767e-38
-0.82995576 -1.6776377 0.83290905 1.2538964e-38
-0.83321357 -1.6776373 0.83290923 1.2631159e-38
-0.83647132 -1.677637 0.83290935 1.2723354e-38
-0.83972913 -1.6776366 0.83290952 1.281519e-38
-0.84298688 -1.6776363 0.8329097 1.2907385e-38
-0.84624469 -1.677636 0.83290988 1.2907746e-38
-0.84950244 -1.6776357 0.83291 1.281555e-38
-0.85276026 -1.6776354 0.83291012 1.2723354e-38
0.69481099 -1.7502836 0.79399967 1.9453278e-38
0.68904179 -1.7442827 0.79691476 1.89923e-38
0.68351012 -1.7388269 0.79956526 1.89923e-38
0.67834091 -1.7342449 0.80179119 1.8531322e-38
0.67344612 -1.7303236 0.80369627 1.8531322e-38
0.66860849 -1.7265096 0.80554909 1.8439126e-38
0.66408557 -1.7234763 0.80702269 1.8070343e-38
0.65966302 -1.7206738 0.80838418 1.8070343e-38
0.65525991 -1.7178929 0.80973506 1.8070343e-38
0.65098208 -1.7154144 0.81093913 1.7793757e-38
0.64684266 -1.7132779 0.81197709 1.7701561e-38
0.6427362 -1.7112066 0.81298339 1.7701561e-38
0.63869262 -1.709282 0.81391823 1.7424974e-38
0.63474542 -1.7075975 0.81473655 1.7240583e-38
0.63088381 -1.7061274 0.81545079 1.7240583e-38
0.627029 -1.7046598 0.81616372 1.7240583e-38
0.62323141 -1.7033333 0.81680816 1.7148387e-38
0.61949736 -1.702168 0.81737429 1.6779605e-38
0.61583793 -1.7011968 0.81784606 1.6779605e-38
0.61218208 -1.7002252 0.81831807 1.6779605e-38
0.60852933 -1.6992511 0.81879133 1.6779605e-38
0.60494614 -1.6984626 0.81917429 1.6410822e-38
0.60141021 -1.6977998 0.81949639 1.6410822e-38
0.59791094 -1.697234 0.81977123 1.6410822e-38
0.59443027 -1.6967152 0.82002318 1.6410822e-38
0.59097123 -1.6962532 0.82024771 1.6410822e-38
0.58754128 -1.6958703 0.82043374 1.6410822e-38
0.58414489 -1.6955812 0.82057416 1.6410822e-38
0.58080667 -1.6954598 0.82063311 1.6410822e-38
0.57746547 -1.6953282 0.82069701 1.6410822e-38
0.57411075 -1.6951549 0.82078123 1.6410822e-38
0.57078576 -1.6950685 0.82082325 1.6410822e-38
0.56754625 -1.6952389 0.8207404 1.6410822e-38
0.56430495 -1.695406 0.82065928 1.6410822e-38
0.56104898 -1.6955303 0.8205989 1.6410822e-38
0.55779254 -1.6956546 0.82053846 1.6410822e-38
0.55460072 -1.6959801 0.82038033 1.6410822e-38
0.55141866 -1.6963402 0.82020539 1.6410822e-38
0.54826206 -1.6967844 0.81998956 1.6410822e-38
0.54511982 -1.6972796 0.81974912 1.6410822e-38
0.54198247 -1.6977962 0.819498 1.6410822e-38
0.53885806 -1.698361 0.8192237 1.6410822e-38
0.53719968 -1.7036387 0.81665981 1.5949845e-38
0.53410572 -1.7043468 0.81631583 1.5949844e-38
0.53100902 -1.7050552 0.81597167 1.6134235e-38
0.52655721 -1.7013381 0.81777745 1.6318626e-38
0.52352893 -1.7022614 0.81732887 1.6226431e-38
0.5205251 -1.7032782 0.81683493 1.6134235e-38
0.51751757 -1.7042961 0.81634045 1.604204e-38
0.51451403 -1.7053412 0.81583267 1.5949845e-38
0.51152241 -1.7064409 0.81529844 1.585765e-38
0.508564 -1.7076688 0.81470197 1.5581063e-38
0.50563544 -1.709016 0.81404752 1.5027889e-38
0.50270218 -1.7103653 0.81339198 1.4382522e-38
0.49976146 -1.7117077 0.81273985 1.382899e-38
0.46103048 -1.5877129 0.87297678 1.443544e-38
0.45607239 -1.5810915 0.8761934 1.3528609e-38
0.4516831 -1.5763965 0.87847424 1.1883127e-38
0.44771057 -1.5731252 0.88006341 1.0411231e-38
0.44387496 -1.5703003 0.88143581 9.3974368e-39
0.44030017 -1.568381 0.88236821 8.844626e-39
0.43673354 -1.5664632 0.88329983 8.1996181e-39
0.43333864 -1.56515 0.88393784 7.7386413e-39
0.43003082 -1.5641401 0.88442838 7.3702204e-39
0.42672777 -1.5631331 0.88491762 7.0947153e-39
0.42352945 -1.5625055 0.88522249 8.572746e-39
0.42041659 -1.5621924 0.88537455 8.6653018e-39
0.41730517 -1.5618802 0.88552624 8.7575002e-39
0.41421044 -1.5616275 0.88564909 8.7582205e-39
0.41125548 -1.5619137 0.88551003 8.6653032e-39
0.40829927 -1.5621996 0.88537109 8.5727474e-39
0.40534174 -1.5624846 0.88523263 6.8181382e-39
0.40244943 -1.5630337 0.8849659 6.2646001e-39
0.39962977 -1.5638828 0.88455337 6.2645987e-39
0.39680707 -1.5647335 0.88414013 6.3567943e-39
0.39398122 -1.5655851 0.88372642 6.3564342e-39
0.39126605 -1.5669055 0.88308501 6.2642371e-39
0.38857269 -1.5683379 0.88238913 6.4486298e-39
0.38587421 -1.5697732 0.88169181 6.5404653e-39
0.38321382 -1.571393 0.88090491 6.8174151e-39
0.38065815 -1.5734853 0.87988853 7.3709518e-39
0.37809503 -1.5755814 0.87887019 8.0145248e-39
0.37552881 -1.5777005 0.87784076 8.3771864e-39
0.37313408 -1.5806043 0.87643009 8.4614605e-39
0.37073112 -1.5835229 0.87501222 8.5536561e-39
0.36836135 -1.5866407 0.87349761 8.455697e-39
0.36618787 -1.590693 0.87152892 8.4560557e-39
0.36400181 -1.5947618 0.86955231 8.458578e-39
0.36213142 -1.6003439 0.86684054 8.5597798e-39
0.36038995 -1.6066216 0.86379075 8.4564158e-39
0.35940862 -1.6165458 0.85896963 7.5420322e-39
0.22552249 -1.6496837 0.84287125 1.2526605e-38
0.22171856 -1.6449013 0.84519446 1.2802829e-38
0.21818814 -1.6421832 0.846515 1.2434411e-38
0.21478717 -1.6404431 0.84736031 1.1697573e-38
0.211531 -1.6398593 0.84764391 1.1697573e-38
0.20834513 -1.6398553 0.84764588 1.0592316e-38
0.20522422 -1.6404148 0.84737402 1.0592316e-38
0.20220329 -1.6418777 0.84666342 9.1186401e-39
0.19922237 -1.6437528 0.84575242 7.0921551e-39
0.19636057 -1.6467878 0.8442781 7.0921551e-39
0.19361083 -1.6509815 0.84224075 4.3291925e-39
0.19105147 -1.657145 0.83924651 5.5280804e-40
0.097506411 -1.5278796 0.90204388 8.6689508e-40
0.094051957 -1.5178277 0.90692705 8.6581328e-40
0.090783849 -1.5108782 0.91030312 8.6545174e-40
0.0875955 -1.5050802 0.91311979 8.6473147e-40
0.084467322 -1.5001396 0.91551995 8.6473007e-40
0.081384972 -1.495833 0.91761214 8.640098e-40
0.078355461 -1.4924369 0.91926193 9.5440336e-40
0.075353056 -1.4894049 0.92073488 9.5440477e-40
0.072367832 -1.4865165 0.92213804 9.5332296e-40
0.069406986 -1.4840153 0.92335314 3.1602475e-39
0.066459976 -1.481637 0.92450857 9.0434632e-39
0.063533626 -1.4796418 0.9254778 1.0422792e-38
0.060615741 -1.477664 0.92643869 3.5268664e-39
0.057711031 -1.4758958 0.92729759 9.5187822e-40
0.054815087 -1.4742005 0.92812115 9.5151949e-40
0.051928617 -1.4726326 0.9288829 9.5115796e-40
0.049050234 -1.4711595 0.92959857 9.5043769e-40
0.046181094 -1.4698825 0.93021888 9.5043769e-40
0.043317568 -1.4686387 0.93082315 8.5680012e-40
0.040463217 -1.4677167 0.93127108 5.5461586e-39
0.037613545 -1.4668837 0.93167579 9.5908678e-39
0.034768641 -1.4662098 0.93200314 7.1080752e-39
0.031927481 -1.4656844 0.93225837 5.7732936e-40
0.029088542 -1.4651821 0.93250239 2.0962724e-40
0.026251853 -1.4647586 0.93270802 1.1779175e-40
0.02341689 -1.4643657 0.93289894 1.1779175e-40
0.020583443 -1.4640315 0.93306136 1.1779175e-40
0.017751245 -1.4637281 0.93320876 1.1779175e-40
0.014919373 -1.4636018 0.9332701 2.0962724e-40
0.012087462 -1.4635533 0.93329364 2.6920597e-39
0.0092556458 -1.463516 0.93331182 9.128089e-39
0.0064228997 -1.4635766 0.93328232 7.9327898e-39
0.0035890453 -1.4637036 0.93322062 1.1290598e-39
0.00074826926 -1.4642574 0.93295157 1.1779175e-40
-0.002096625 -1.4649225 0.93262839 1.1779175e-40
-0.0049466155 -1.4657156 0.93224317 1.1779175e-40
-0.0078010429 -1.4665686 0.93182886 1.1779175e-40
-0.01065857 -1.4674076 0.93142122 4.8549387e-40
-0.013519712 -1.4682566 0.93100876 6.186119e-39
-0.016384095 -1.4690998 0.93059915 8.8522224e-39
-0.019264895 -1.4703918 0.92997146 1.1779175e-40
-0.022154439 -1.4717987 0.92928809 1.1779175e-40
-0.025053676 -1.4733281 0.928545 1.1779175e-40
-0.027960543 -1.4749004 0.92778122 1.1779175e-40
-0.030881692 -1.476688 0.92691278 1.1779175e-40
-0.033819225 -1.4787117 0.92592973 1.1779175e-40
-0.036771074 -1.4808865 0.92487317 1.1779175e-40
-0.0397394 -1.4832414 0.92372912 1.1779175e-40
-0.042738549 -1.4860708 0.92235464 1.1779175e-40
-0.04577177 -1.489383 0.92074549 1.1779175e-40
-0.048836455 -1.4930658 0.91895646 1.1779175e-40
-0.051931791 -1.4970598 0.91701615 1.1779175e-40
-0.055067986 -1.5015217 0.91484851 1.1779175e-40
-0.058252722 -1.5065403 0.9124105 1.1779175e-40
-0.061503939 -1.5123708 0.90957803 1.1779175e-40
-0.064852297 -1.5194497 0.90613908 1.1779175e-40
-0.12028117 -1.6825016 0.8269282 2.3509886e-38
-0.12362364 -1.683305 0.82653791 1.89923e-38
-0.1271067 -1.6856152 0.82541561 1.4659105e-38
-0.13065223 -1.6884968 0.82401574 1.1801041e-38
-0.13421863 -1.6914765 0.8225683 1.2077628e-38
-0.13771312 -1.693593 0.82154 1.3091779e-38
-0.14119108 -1.6954573 0.82063437 1.3091779e-38
-0.1446766 -1.6973226 0.8197282 1.3460562e-38
-0.14816767 -1.6991693 0.81883103 1.3460562e-38
-0.15166658 -1.70102 0.81793195 1.3460562e-38
-0.15517336 -1.7028753 0.81703073 1.3460562e-38
-0.15861161 -1.7040346 0.81646746 1.4935692e-38
-0.16203915 -1.7050558 0.81597137 1.5304475e-38
-0.16546968 -1.7060672 0.81547999 1.5304475e-38
-0.16890441 -1.70708 0.81498796 1.5304475e-38
-0.17234331 -1.708094 0.81449544 1.5304475e-38
-0.17578647 -1.7091093 0.81400216 1.5304475e-38
-0.17918608 -1.7097319 0.81369966 1.6963996e-38
-0.18255101 -1.7100528 0.81354374 1.6963996e-38
-0.18591726 -1.710374 0.81338775 1.6963996e-38
-0.1892848 -1.7106953 0.81323171 1.6963996e-38
-0.19265364 -1.7110165 0.8130756 1.6963996e-38
-0.19602381 -1.7113382 0.81291938 1.6963996e-38
-0.19938801 -1.7116053 0.81278956 1.8900104e-38
-0.20267461 -1.7112908 0.81294239 1.8900104e-38
-0.20595998 -1.7109762 0.81309515 1.8900104e-38
-0.2092441 -1.7106621 0.8132478 1.8900104e-38
-0.21252698 -1.7103479 0.81340039 1.8900104e-38
-0.21580863 -1.710034 0.81355292 1.8900104e-38
-0.21908908 -1.7097204 0.81370527 1.8900104e-38
-0.22232792 -1.7091329 0.81399071 2.0836212e-38
-0.22551183 -1.7081931 0.81444728 2.0836212e-38
-0.22869213 -1.7072543 0.81490338 2.0836212e-38
-0.2318687 -1.7063158 0.81535923 2.0836212e-38
-0.23504172 -1.7053785 0.81581461 2.0836212e-38
-0.23821025 -1.7044367 0.81627214 2.0559625e-38
-0.24137439 -1.7034909 0.81673157 2.0559625e-38
-0.24446388 -1.7021059 0.81740439 2.2403538e-38
-0.2475109 -1.7004945 0.81818724 2.2403538e-38
-0.25055158 -1.6988844 0.81896943 2.2403538e-38
-0.25358605 -1.6972754 0.81975108 2.2403538e-38
-0.256612 -1.695654 0.82053876 2.2219147e-38
-0.25963175 -1.6940345 0.82132554 2.2219147e-38
-0.2626456 -1.6924183 0.82211065 2.2219147e-38
-0.26554042 -1.6901602 0.82320774 2.3509886e-38
-0.2684046 -1.6877803 0.82436383 2.3509886e-38
-0.2712689 -1.6854544 0.82549375 2.3509886e-38
-0.27419037 -1.6834947 0.8264457 2.3509886e-38
-0.27719098 -1.6820101 0.82716703 2.3509886e-38
-0.55038524 -1.7454458 0.79634982 7.0068665e-39
-0.54741341 -1.7266923 0.80546033 7.1912591e-39
-0.54450798 -1.7083533 0.81436938 7.1912591e-39
-0.54373968 -1.6964476 0.82015318 7.9288242e-39
-0.54477578 -1.6899009 0.82333362 8.3901625e-39
-0.54580373 -1.6834061 0.82648879 9.0355305e-39
-0.54682356 -1.6769625 0.82961911 8.9429761e-39
-0.54783529 -1.6705694 0.83272487 8.5745523e-39
-0.55095404 -1.670207 0.832901 1.2907744e-38
-0.55420011 -1.6702067 0.83290118 1.3092135e-38
-0.55744618 -1.6702062 0.8329013 1.299994e-38
-0.56069225 -1.670206 0.83290148 1.299958e-38
-0.56393832 -1.6702056 0.83290166 1.2907385e-38
-0.56718439 -1.6702051 0.83290184 1.281519e-38
-0.57043046 -1.6702048 0.83290201 1.2722994e-38
-0.57367653 -1.6702044 0.83290219 1.2722994e-38
-0.57692254 -1.670204 0.83290243 1.2631159e-38
-0.5801686 -1.6702037 0.83290249 1.2631159e-38
-0.58341467 -1.6702033 0.83290273 1.2631159e-38
-0.58666074 -1.670203 0.83290291 1.2631159e-38
-0.58990681 -1.6702026 0.83290309 1.281519e-38
-0.59315282 -1.6702023 0.83290327 1.2907384e-38
-0.59639889 -1.6702019 0.83290344 1.2815188e-38
-0.59964496 -1.6702017 0.83290362 1.2631157e-38
-0.60289097 -1.6702012 0.83290374 1.2538963e-38
-0.60613704 -1.6702009 0.83290392 1.2538963e-38
-0.60938317 -1.6702007 0.83290404 1.2538603e-38
-0.61262929 -1.6702006 0.8329041 1.2446407e-38
-0.61587548 -1.6702006 0.8329041 1.235421e-38
-0.61912167 -1.6702006 0.8329041 1.1985429e-38
-0.62236786 -1.6702006 0.8329041 1.1616647e-38
-0.62561399 -1.6702003 0.83290416 1.1063473e-38
-0.62886018 -1.6702003 0.83290416 1.0233712e-38
-0.63210636 -1.6702003 0.83290416 9.4039514e-39
-0.63535255 -1.6702003 0.83290416 6.9146708e-39
-0.63794392 -1.6685945 0.83368433 3.3190413e-39
-0.63974041 -1.6650641 0.83539939 2.0283039e-39
-0.64152938 -1.6615498 0.83710659 1.1985432e-39
-0.64339179 -1.6582471 0.83871108 1.0141519e-39
-0.64566839 -1.6559726 0.83981597 9.219563e-40
-0.64793861 -1.6537045 0.84091783 1.1985432e-39
-0.65020138 -1.6514405 0.84201777 1.3829344e-39
-0.65245759 -1.6491823 0.84311473 1.5673257e-39
-0.65470749 -1.6469306 0.84420866 1.8442713e-39
-0.65695101 -1.644685 0.8452996 2.0283039e-39
-0.66013867 -1.6446679 0.84530795 3.8718549e-39
-0.66333395 -1.6446683 0.84530771 4.2409962e-39
-0.66652918 -1.6446689 0.84530741 4.60942e-39
-0.66972435 -1.6446691 0.84530729 4.7938098e-39
-0.67291915 -1.6446687 0.84530753 5.0700366e-39
-0.67611396 -1.6446681 0.84530777 5.3466235e-39
-0.67930883 -1.6446676 0.84530801 5.6235677e-39
-0.68250358 -1.6446671 0.8453083 5.9919901e-39
-0.68569797 -1.6446656 0.84530896 6.6366378e-39
-0.68889236 -1.6446643 0.84530967 7.3738413e-39
-0.6920867 -1.6446627 0.84531039 8.1110434e-39
-0.69528109 -1.6446613 0.84531105 8.3872702e-39
-0.74037099 -1.7373891 0.80026376 7.3756504e-40
-0.74269688 -1.7350645 0.80139309 7.3756504e-40
-0.70486605 -1.6446611 0.84531116 8.3872702e-39
-0.70806164 -1.6446624 0.84531057 8.0188492e-39
-0.71125728 -1.6446637 0.84530991 7.3738413e-39
-0.71445286 -1.644665 0.84530932 6.5448023e-39
-0.71764845 -1.6446662 0.84530872 5.9919901e-39
-0.72084361 -1.6446664 0.84530854 5.623209e-39
-0.72403878 -1.6446667 0.84530848 5.3466235e-39
-0.72723395 -1.644667 0.8453083 4.9782011e-39
-0.73042905 -1.6446671 0.84530824 4.7938098e-39
-0.73362386 -1.6446667 0.84530848 4.5175831e-39
-0.73681855 -1.6446661 0.84530878 4.2406374e-39
-0.74001324 -1.6446654 0.84530914 3.7800194e-39
-0.74345165 -1.6451725 0.84506273 1.3825743e-39
-0.74962121 -1.6513435 0.84206492 1.1063476e-39
-0.75583619 -1.6575571 0.8390463 1.2907388e-39
-0.76519799 -1.6701964 0.83290619 7.375649e-39
-0.76844412 -1.6701963 0.83290625 9.4961485e-39
-0.77169019 -1.6701961 0.83290625 1.0325909e-38
-0.77493632 -1.6701959 0.83290631 1.1247864e-38
-0.77818239 -1.6701956 0.83290642 1.1616647e-38
-0.78142852 -1.6701956 0.83290648 1.2077623e-38
-0.78467458 -1.6701953 0.8329066 1.235421e-38
-0.78792065 -1.6701951 0.83290672 1.2446407e-38
-0.79116678 -1.670195 0.83290678 1.2538603e-38
-0.79441279 -1.6701947 0.8329069 1.2538963e-38
-0.7976588 -1.6701944 0.83290708 1.2538963e-38
-0.80090481 -1.670194 0.83290726 1.2631159e-38
-0.80415082 -1.6701938 0.83290744 1.2815188e-38
-0.80739683 -1.6701934 0.8329075 1.2907384e-38
-0.81064284 -1.6701932 0.83290762 1.2723354e-38
-0.81388885 -1.670193 0.8329078 1.2631159e-38
-0.81713486 -1.6701926 0.83290797 1.2631159e-38
-0.82038087 -1.6701922 0.83290809 1.2631159e-38
-0.82362688 -1.670192 0.83290827 1.2631159e-38
-0.82687289 -1.6701916 0.83290845 1.2722994e-38
-0.83011889 -1.6701913 0.83290863 1.2722994e-38
-0.83336484 -1.6701909 0.83290875 1.281519e-38
-0.83661085 -1.6701906 0.83290887 1.2907385e-38
-0.83985686 -1.6701903 0.83290905 1.2999581e-38
-0.84310287 -1.67019 0.83290923 1.2999941e-38
-0.84634882 -1.6701896 0.83290935 1.3091777e-38
-0.84959489 -1.6701895 0.83290946 1.281555e-38
0.68455058 -1.7398584 0.79530072 1.89923e-38
0.67927003 -1.7350092 0.79766732 1.8531322e-38
0.67436618 -1.7310805 0.79958463 1.8531322e-38
0.66948509 -1.72717 0.80149305 1.8531322e-38
0.66490984 -1.7240149 0.80303282 1.8070343e-38
0.6604802 -1.7212079 0.80440271 1.8070343e-38
0.6560654 -1.7184104 0.80576801 1.8070343e-38
0.6517362 -1.7158096 0.80703723 1.7793757e-38
0.64759129 -1.713671 0.80808091 1.7701561e-38
0.64347887 -1.7115965 0.80909336 1.7701561e-38
0.63939434 -1.7095745 0.81008017 1.7424974e-38
0.63543832 -1.707878 0.81090814 1.7240583e-38
0.63157171 -1.7064059 0.81162655 1.7240583e-38
0.62771201 -1.7049365 0.81234366 1.7240583e-38
0.6238904 -1.7035557 0.81301749 1.7148387e-38
0.62013566 -1.7023442 0.81360877 1.6779605e-38
0.61647189 -1.7013719 0.81408322 1.6779605e-38
0.61281246 -1.7004011 0.81455708 1.6779605e-38
0.60915571 -1.6994264 0.81503272 1.6779605e-38
0.60554373 -1.6985674 0.81545192 1.6410822e-38
0.60200393 -1.6979038 0.81577581 1.6410822e-38
0.59850329 -1.6973443 0.81604886 1.6410822e-38
0.59501886 -1.6968249 0.8163023 1.6410822e-38
0.59153926 -1.6963136 0.81655186 1.6410822e-38
0.58810556 -1.6959298 0.81673914 1.6410822e-38
0.58469832 -1.6956189 0.8168909 1.6410822e-38
0.58135676 -1.6954975 0.81695008 1.6410822e-38
0.57800853 -1.6953549 0.81701976 1.6410822e-38
0.57465047 -1.6951814 0.8171044 1.6410822e-38
0.57130402 -1.6950403 0.81717318 1.6410822e-38
0.56806153 -1.6952109 0.81709003 1.6410822e-38
0.56481832 -1.6953815 0.81700671 1.6410822e-38
0.56156689 -1.6955291 0.81693476 1.6410822e-38
0.55830735 -1.6956536 0.81687397 1.6410822e-38
0.55509174 -1.6959152 0.81674629 1.6410822e-38
0.55190694 -1.6962757 0.81657028 1.6410822e-38
0.54874885 -1.6967245 0.81635129 1.6410822e-38
0.54560387 -1.6972201 0.81610942 1.6410822e-38
0.54245704 -1.697716 0.81586748 1.6410822e-38
0.53932816 -1.6982757 0.81559432 1.6410822e-38
0.53766191 -1.7035323 0.81302887 1.3552403e-38
0.53456539 -1.7042412 0.81268299 1.2999589e-38
0.53146607 -1.7049502 0.81233692 1.3828989e-38
0.52700096 -1.7012026 0.81416583 1.5488867e-38
0.52397102 -1.7021294 0.81371361 1.4658749e-38
0.5209648 -1.7031469 0.81321698 1.4105936e-38
0.51795483 -1.7041656 0.81271982 1.3644957e-38
0.51494122 -1.7051858 0.812222 1.3276176e-38
0.51194555 -1.7062802 0.81168783 1.3091425e-38
0.50897777 -1.7074848 0.81109995 1.2723003e-38
0.50604707 -1.708833 0.81044209 1.2446057e-38
0.5031116 -1.7101833 0.80978304 1.216947e-38
0.50017136 -1.7115358 0.80912298 1.1985079e-38
0.46194381 -1.5894315 0.86871338 1.4803142e-38
0.45671153 -1.5818729 0.87240219 1.3998956e-38
0.45222104 -1.5768394 0.87485868 1.2967878e-38
0.44824237 -1.5735631 0.87645763 1.2145317e-38
0.44435167 -1.5705562 0.8779251 1.0959014e-38
0.44077229 -1.5686346 0.87886286 9.9488211e-39
0.43720108 -1.5667145 0.87979996 9.1208583e-39
0.43376988 -1.5652816 0.88049924 8.1996223e-39
0.43045831 -1.5642705 0.88099265 7.6468086e-39
0.4271515 -1.5632622 0.88148469 7.1861892e-39
0.42392612 -1.5625454 0.88183457 8.5727446e-39
0.4208101 -1.562232 0.88198745 8.7571387e-39
0.41769546 -1.5619193 0.8821401 8.7575002e-39
0.41458219 -1.561607 0.88229257 8.8500574e-39
0.41162062 -1.5618784 0.88216007 8.7575002e-39
0.40866178 -1.5621648 0.88202035 8.7571387e-39
0.40570152 -1.5624499 0.88188118 7.1880025e-39
0.40278941 -1.5629312 0.88164628 6.5408282e-39
0.39996743 -1.5637811 0.88123149 6.6333854e-39
0.39714241 -1.5646323 0.8808161 6.7259412e-39
0.39431423 -1.5654846 0.88040006 6.8181382e-39
0.39158034 -1.5667382 0.87978828 7.3713148e-39
0.38888496 -1.5681717 0.87908876 7.9230508e-39
0.38618457 -1.5696082 0.87838763 8.1963979e-39
0.38350457 -1.5711552 0.8776328 8.3746683e-39
0.38094723 -1.5732486 0.87661105 8.3671027e-39
0.3783825 -1.5753465 0.87558734 8.3638615e-39
0.3758105 -1.5774492 0.87456107 8.5540177e-39
0.37339818 -1.580284 0.87317759 8.5605015e-39
0.37099385 -1.5832039 0.87175262 8.5568974e-39
0.36859584 -1.5862038 0.87028861 8.4564158e-39
0.36642158 -1.5902581 0.86830997 8.4546152e-39
0.36423463 -1.5943285 0.86632353 8.4574962e-39
0.36232173 -1.5997213 0.86369163 8.6523342e-39
0.36050689 -1.605664 0.86079144 8.3631412e-39
0.35950476 -1.615487 0.8559975 7.1786559e-39
0.229036 -1.6505314 0.83889484 1.1145124e-38
0.22457805 -1.6407309 0.84367776 1.2526605e-38
0.2209011 -1.6368476 0.84557295 1.2802829e-38
0.21743791 -1.634571 0.84668398 1.2434411e-38
0.21408546 -1.6331322 0.84738624 1.1697573e-38
0.2108414 -1.6325531 0.84766877 1.1697573e-38
0.20769514 -1.6327879 0.84755421 1.0592316e-38
0.20458567 -1.6333498 0.84727997 9.1186401e-39
0.20160054 -1.6350292 0.8464604 9.1186401e-39
0.19865817 -1.6371529 0.84542394 7.0921551e-39
0.19580092 -1.6401335 0.84396935 7.0921551e-39
0.1930888 -1.6445783 0.84180021 4.3291925e-39
0.19059655 -1.6512805 0.83852929 5.5280804e-40
0.097588405 -1.5280634 0.89866281 8.6689508e-40
0.09412574 -1.5179197 0.90361327 8.6581187e-40
0.090853296 -1.5109485 0.90701532 8.6545174e-40
0.087660968 -1.5051334 0.90985328 8.6473147e-40
0.084528856 -1.5001738 0.91227371 8.6473007e-40
0.081443794 -1.4958749 0.91437167 8.640098e-40
0.078409791 -1.4924406 0.91604769 9.5440336e-40
0.075405061 -1.489424 0.91751987 9.5440477e-40
0.07241679 -1.4865316 0.91893148 9.5332296e-40
0.069453284 -1.484037 0.92014885 3.1602475e-39
0.066503003 -1.4816461 0.92131579 9.0434632e-39
0.06357377 -1.4796489 0.92229038 1.0422792e-38
0.060653102 -1.4776726 0.92325491 3.6187033e-39
0.057745114 -1.4758856 0.92412698 9.5187822e-40
0.054846663 -1.4742014 0.92494893 9.5115796e-40
0.051957499 -1.4726377 0.92571217 9.5115796e-40
0.049075522 -1.4711217 0.92645198 9.5043769e-40
0.04620368 -1.4698436 0.92707574 9.5043769e-40
0.043337751 -1.4686179 0.92767388 9.4971742e-40
0.04048093 -1.4677137 0.92811513 5.4543231e-39
0.037628394 -1.4668689 0.92852741 9.5908678e-39
0.03478083 -1.4662002 0.92885375 7.1077165e-39
0.031936903 -1.4656669 0.9291141 5.7732936e-40
0.029095288 -1.4651681 0.92935747 2.0962724e-40
0.026255883 -1.4647394 0.92956662 1.1779175e-40
0.023418233 -1.4643459 0.92975867 1.1779175e-40
0.020582097 -1.4640174 0.929919 1.1779175e-40
0.017747201 -1.4637139 0.93006718 1.1779175e-40
0.01491273 -1.4635689 0.93013787 2.0962724e-40
0.012078139 -1.4635239 0.93015993 2.6920597e-39
0.0092436597 -1.4634863 0.93017817 9.128089e-39
0.0064082472 -1.4635471 0.9301486 7.7491189e-39
0.0035713091 -1.4637061 0.93007094 1.1290598e-39
0.00072783418 -1.4642575 0.92980188 1.1779175e-40
-0.0021198057 -1.4649234 0.92947692 1.1779175e-40
-0.0049726665 -1.465723 0.92908663 1.1779175e-40
-0.0078298543 -1.466576 0.92867041 1.1779175e-40
-0.01069013 -1.4674145 0.92826122 4.8549387e-40
-0.013554227 -1.4682711 0.92784309 6.2779544e-39
-0.016422406 -1.4691517 0.92741334 8.7603869e-39
-0.019306067 -1.4704431 0.92678308 1.1779175e-40
-0.022197969 -1.4718332 0.92610472 1.1779175e-40
-0.025100421 -1.4733737 0.92535299 1.1779175e-40
-0.028010551 -1.4749566 0.9245804 1.1779175e-40
-0.0309356 -1.4767705 0.92369509 1.1779175e-40
-0.033874732 -1.4787587 0.92272484 1.1779175e-40
-0.036828853 -1.4809173 0.92167133 1.1779175e-40
-0.039801631 -1.483308 0.92050475 1.1779175e-40
-0.042804129 -1.4861447 0.91912031 1.1779175e-40
-0.045842871 -1.4895089 0.91747844 1.1779175e-40
-0.048912719 -1.4932318 0.91566157 1.1779175e-40
-0.052010216 -1.4972034 0.91372335 1.1779175e-40
-0.055152155 -1.5017112 0.9115234 1.1779175e-40
-0.058340028 -1.5067242 0.90907687 1.1779175e-40
-0.061596654 -1.5125881 0.90621513 1.1779175e-40
-0.064954996 -1.5197741 0.90270817 1.1779175e-40
-0.11650242 -1.6749741 0.82696611 1.9268887e-38
-0.11994989 -1.6771361 0.82591105 1.5857648e-38
-0.12344985 -1.6797887 0.82461643 1.1801041e-38
-0.12698896 -1.6827539 0.82316935 1.2077628e-38
-0.13053894 -1.6857082 0.82172763 1.2077628e-38
-0.13410181 -1.6886733 0.82028055 1.2077628e-38
-0.13764006 -1.691263 0.8190167 1.3460562e-38
-0.14111383 -1.6930987 0.81812084 1.3460562e-38
-0.14459538 -1.6949383 0.81722301 1.3460562e-38
-0.14808474 -1.6967821 0.81632316 1.3460562e-38
-0.15158001 -1.698612 0.81543016 1.3829344e-38
-0.15508214 -1.7004372 0.81453943 1.3829344e-38
-0.15854648 -1.7018498 0.81385005 1.5304475e-38
-0.16197149 -1.7028582 0.81335795 1.5304475e-38
-0.1654007 -1.7038678 0.8128652 1.5304475e-38
-0.16883409 -1.7048787 0.81237185 1.5304475e-38
-0.17227037 -1.7058797 0.81188339 1.5581061e-38
-0.17571065 -1.7068803 0.81139499 1.5581061e-38
-0.17912319 -1.7076194 0.81103432 1.7240583e-38
-0.18248679 -1.7079376 0.81087905 1.7240583e-38
-0.18585165 -1.7082558 0.81072378 1.7240583e-38
-0.18921775 -1.7085736 0.81056869 1.7240583e-38
-0.1925851 -1.708891 0.81041366 1.7240583e-38
-0.19595373 -1.7092088 0.81025863 1.7240583e-38
-0.19931814 -1.7094853 0.81012368 1.9084495e-38
-0.20260406 -1.7091738 0.81027573 1.9084495e-38
-0.20588873 -1.7088622 0.81042778 1.9084495e-38
-0.20917217 -1.7085509 0.81057972 1.9084495e-38
-0.21245453 -1.7082406 0.81073111 1.9084495e-38
-0.21573566 -1.7079306 0.81088245 1.9084495e-38
-0.21901555 -1.7076206 0.81103373 1.9084495e-38
-0.22224101 -1.7069496 0.81136119 2.1020604e-38
-0.22542532 -1.7060213 0.81181419 2.1020604e-38
-0.22860624 -1.7050952 0.81226617 2.1020604e-38
-0.23178212 -1.7041603 0.81272238 2.0836212e-38
-0.23495419 -1.7032255 0.81317872 2.0836212e-38
-0.2381226 -1.7022907 0.81363487 2.0836212e-38
-0.24128743 -1.7013571 0.81409049 2.0836212e-38
-0.24434562 -1.6997863 0.81485707 2.2587929e-38
-0.24739452 -1.6981971 0.81563258 2.2587929e-38
-0.25043601 -1.696602 0.81641108 2.2403538e-38
-0.25347 -1.6949999 0.81719303 2.2403538e-38
-0.25649756 -1.6933978 0.81797481 2.2403538e-38
-0.25951904 -1.6917979 0.81875569 2.2403538e-38
-0.26249671 -1.6899824 0.81964165 2.3509886e-38
-0.26536745 -1.6875991 0.82080477 2.3509886e-38
-0.26822901 -1.6852179 0.82196689 2.3509886e-38
-0.27108228 -1.6828436 0.8231256 2.3509886e-38
-0.27392828 -1.6804819 0.82427818 2.3509886e-38
-0.27677476 -1.6781743 0.82540441 2.3509886e-38
-0.27967268 -1.6761938 0.82637089 2.3509886e-38
-0.28261411 -1.6744879 0.82720339 2.3509886e-38
-0.54989946 -1.7423799 0.79407024 6.8224766e-39
-0.54693556 -1.7236762 0.80319816 7.0994236e-39
-0.54403782 -1.7053854 0.81212455 7.1912591e-39
-0.5439111 -1.6953646 0.81701493 7.4682048e-39
-0.54494685 -1.6888202 0.82020885 7.744793e-39
-0.54597443 -1.6823279 0.82337731 8.3898023e-39
-0.54699385 -1.6758864 0.82652092 8.9429761e-39
-0.54800534 -1.6694958 0.82963967 8.8511392e-39
-0.54900879 -1.6631551 0.83273411 8.4823567e-39
-0.5521214 -1.6628109 0.83290219 1.3183972e-38
-0.55535579 -1.6628104 0.83290231 1.3368362e-38
-0.55859011 -1.66281 0.83290255 1.3276166e-38
-0.56182444 -1.6628097 0.83290273 1.3091777e-38
-0.56505883 -1.6628094 0.83290285 1.2999581e-38
-0.56829315 -1.662809 0.83290303 1.281555e-38
-0.57152754 -1.6628087 0.83290321 1.2723354e-38
-0.57476187 -1.6628083 0.83290339 1.2722994e-38
-0.57799619 -1.6628079 0.83290362 1.2722994e-38
-0.58123058 -1.6628076 0.83290374 1.2631159e-38
-0.58446491 -1.6628073 0.83290392 1.2631159e-38
-0.58769935 -1.6628071 0.83290404 1.2722994e-38
-0.5909338 -1.6628071 0.83290404 1.281519e-38
-0.59416831 -1.6628071 0.83290404 1.281519e-38
-0.59740275 -1.6628071 0.83290404 1.2723353e-38
-0.6006372 -1.662807 0.83290404 1.2631157e-38
-0.6038717 -1.662807 0.83290404 1.2631157e-38
-0.60710615 -1.662807 0.83290404 1.2630798e-38
-0.61034065 -1.662807 0.83290404 1.2630798e-38
-0.6135751 -1.662807 0.83290404 1.2538603e-38
-0.61680955 -1.6628069 0.8329041 1.2446407e-38
-0.62004405 -1.6628069 0.8329041 1.216982e-38
-0.6232785 -1.6628069 0.8329041 1.1893233e-38
-0.626513 -1.6628069 0.8329041 1.1432255e-38
-0.62974745 -1.6628067 0.83290416 1.0879442e-38
-0.6329819 -1.6628067 0.83290416 1.0141518e-38
-0.6362164 -1.6628067 0.83290416 8.3898009e-39
-0.63945085 -1.6628067 0.83290416 6.6380839e-39
-0.6418817 -1.6608568 0.83385575 3.3190427e-39
-0.64384407 -1.6577945 0.83535033 1.751717e-39
-0.64612156 -1.655519 0.83646077 1.4751301e-39
-0.64839268 -1.65325 0.83756816 9.219563e-40
-0.6506573 -1.6509874 0.83867234 9.219563e-40
-0.65291464 -1.6487288 0.83977461 9.219563e-40
-0.65516537 -1.6464761 0.84087396 9.2231503e-40
-0.65740979 -1.6442298 0.84197026 1.1063476e-39
-0.65982968 -1.6424145 0.84285623 1.2907388e-39
-0.66244882 -1.6410791 0.84350795 1.3832932e-39
-0.6650641 -1.639747 0.84415799 1.5673257e-39
-0.66767502 -1.6384175 0.84480679 1.8439126e-39
-0.67040902 -1.6373823 0.84531206 3.6878238e-39
-0.67359233 -1.6373818 0.8453123 3.9644107e-39
-0.67677563 -1.6373813 0.84531248 4.1488005e-39
-0.67995888 -1.6373807 0.84531277 4.2406374e-39
-0.68314171 -1.6373794 0.84531343 4.3328331e-39
-0.68632454 -1.6373779 0.8453142 4.4250301e-39
-0.68950868 -1.6373794 0.84531343 4.60942e-39
-0.692693 -1.6373812 0.84531254 4.7934511e-39
-0.69587725 -1.637383 0.84531176 4.7938098e-39
-0.69906157 -1.6373848 0.84531081 4.7934511e-39
-0.7022447 -1.6373839 0.84531122 4.7938098e-39
-0.70542723 -1.6373819 0.84531224 4.8856467e-39
-0.70860988 -1.6373799 0.84531313 4.7016156e-39
-0.71179241 -1.6373779 0.8453142 4.5172243e-39
-0.71497571 -1.6373776 0.84531432 4.4250287e-39
-0.71815979 -1.6373788 0.84531373 4.2409976e-39
-0.72134376 -1.6373798 0.84531319 4.2406374e-39
-0.7245273 -1.63738 0.84531307 4.0566063e-39
-0.7277109 -1.6373802 0.84531307 3.8718563e-39
-0.73111373 -1.6378427 0.84508735 1.5673243e-39
-0.73531777 -1.6399833 0.84404266 1.1985432e-39
-0.7395336 -1.6421307 0.84299463 1.0141519e-39
-0.74486893 -1.6465911 0.84081793 1.1063476e-39
-0.75105417 -1.6527762 0.83779937 1.5673257e-39
-0.75912482 -1.6628031 0.83290595 5.9005203e-39
-0.7623592 -1.6628029 0.83290607 7.6522359e-39
-0.76559353 -1.6628027 0.83290619 9.4039528e-39
-0.76882797 -1.6628026 0.83290625 1.069469e-38
-0.7720623 -1.6628023 0.83290631 1.1247864e-38
-0.77529675 -1.6628022 0.83290637 1.1709202e-38
-0.77853113 -1.6628021 0.83290648 1.1985789e-38
-0.78176552 -1.662802 0.83290654 1.2262016e-38
-0.78499991 -1.6628017 0.8329066 1.2446407e-38
-0.78823423 -1.6628015 0.83290672 1.2538603e-38
-0.79146868 -1.6628014 0.83290678 1.2630798e-38
-0.79470301 -1.6628013 0.83290684 1.2630798e-38
-0.79793745 -1.6628011 0.83290696 1.2631157e-38
-0.80117178 -1.6628008 0.83290702 1.2722994e-38
-0.80440623 -1.6628007 0.83290708 1.281519e-38
-0.80764055 -1.6628004 0.8329072 1.281519e-38
-0.81087494 -1.6628003 0.83290732 1.2723354e-38
-0.81410933 -1.6628002 0.83290738 1.2631159e-38
-0.81734365 -1.6627998 0.83290756 1.2631159e-38
-0.82057792 -1.6627995 0.83290768 1.2722994e-38
-0.82381219 -1.6627992 0.83290786 1.2722994e-38
-0.82704651 -1.6627989 0.83290797 1.2723354e-38
-0.83028084 -1.6627986 0.83290809 1.281519e-38
-0.83351517 -1.6627984 0.83290821 1.2907385e-38
-0.83674943 -1.662798 0.83290839 1.3091775e-38
-0.8399837 -1.6627978 0.83290857 1.3183971e-38
-0.84321803 -1.6627975 0.83290875 1.3276168e-38
-0.8464523 -1.6627971 0.83290887 1.3276168e-38
-0.84968656 -1.6627969 0.83290905 1.2907746e-38
0.68020183 -1.7357756 0.79353172 1.8531322e-38
0.67528886 -1.7318395 0.79546142 1.8531322e-38
0.67039877 -1.7279217 0.79738212 1.8531322e-38
0.6657362 -1.724555 0.79903269 1.8070343e-38
0.66129947 -1.7217435 0.80041111 1.8070343e-38
0.65687764 -1.7189413 0.80178487 1.8070343e-38
0.65249217 -1.7162056 0.80312604 1.7793757e-38
0.64834166 -1.714065 0.8041755 1.7701561e-38
0.64422345 -1.7119876 0.80519396 1.7701561e-38
0.64011544 -1.7099154 0.80620992 1.7701561e-38
0.63613284 -1.7081591 0.80707097 1.7240583e-38
0.63226122 -1.7066851 0.80779362 1.7240583e-38
0.62839651 -1.7052138 0.80851495 1.7240583e-38
0.62455088 -1.7037784 0.80921859 1.7148387e-38
0.62077534 -1.702521 0.80983514 1.6779605e-38
0.61710727 -1.7015475 0.81031233 1.6779605e-38
0.61344355 -1.7005754 0.81078893 1.6779605e-38
0.60978341 -1.6996022 0.81126606 1.6779605e-38
0.60614246 -1.6986723 0.81172192 1.6410822e-38
0.60259885 -1.6980081 0.8120476 1.6410822e-38
0.59909683 -1.697455 0.8123188 1.6410822e-38
0.59560865 -1.6969351 0.81257361 1.6410822e-38
0.59212267 -1.6964155 0.81282836 1.6410822e-38
0.58867109 -1.69599 0.81303698 1.6410822e-38
0.58525282 -1.6956568 0.81320035 1.6410822e-38
0.58190793 -1.6955353 0.81325996 1.6410822e-38
0.57855266 -1.6953815 0.8133353 1.6410822e-38
0.57519126 -1.6952078 0.81342041 1.6410822e-38
0.57183057 -1.6950341 0.81350559 1.6410822e-38
0.56857777 -1.6951829 0.81343257 1.6410822e-38
0.56533158 -1.6953537 0.81334889 1.6410822e-38
0.56208473 -1.6955247 0.81326514 1.6410822e-38
0.55882317 -1.6956525 0.8132025 1.6410822e-38
0.55558372 -1.6958503 0.81310552 1.6410822e-38
0.55239612 -1.6962113 0.8129285 1.6410822e-38
0.5492366 -1.6966646 0.81270623 1.6410822e-38
0.54608887 -1.6971605 0.81246316 1.6410822e-38
0.54293925 -1.6976569 0.81221974 1.6410822e-38
0.53979915 -1.69819 0.81195843 1.6410822e-38
0.53812498 -1.7034259 0.80939144 1.2262026e-38
0.53502584 -1.7041353 0.80904371 1.1892883e-38
0.53192401 -1.7048451 0.80869567 1.3091425e-38
0.52762592 -1.7016567 0.81025887 1.6779609e-38
0.52441394 -1.7019972 0.81009191 1.2261666e-38
0.52140528 -1.7030153 0.80959266 1.2077274e-38
0.51839298 -1.7040349 0.80909288 1.1893243e-38
0.51537693 -1.7050558 0.80859238 1.1800689e-38
0.51236939 -1.7061193 0.80807102 1.1708852e-38
0.50939226 -1.7073005 0.80749184 1.1708852e-38
0.50645941 -1.7086498 0.80683041 1.1708852e-38
0.50352174 -1.710001 0.80616796 1.1708852e-38
0.50057936 -1.7113545 0.80550438 1.1708852e-38
0.46286088 -1.5911573 0.86443222 1.4893897e-38
0.45735246 -1.5826566 0.86859983 1.4084308e-38
0.45276034 -1.5772835 0.87123406 1.3258153e-38
0.44877553 -1.574002 0.87284279 1.2226712e-38
0.4448294 -1.5708126 0.87440646 1.1583503e-38
0.44124544 -1.5688887 0.8753497 1.0943173e-38
0.43766963 -1.5669663 0.87629217 1.0305728e-38
0.43420208 -1.5654134 0.87705344 9.6661204e-39
0.43088663 -1.5644011 0.87754971 9.0239936e-39
0.42757612 -1.5633917 0.87804461 8.381864e-39
0.42432362 -1.5625854 0.8784399 8.4780281e-39
0.42120439 -1.5622718 0.87859368 8.6649431e-39
0.41808659 -1.5619587 0.87874711 8.7571387e-39
0.41497016 -1.561646 0.87890047 8.8500574e-39
0.41198647 -1.5618429 0.87880391 8.757859e-39
0.40902495 -1.5621297 0.8786633 8.7571373e-39
0.40606195 -1.5624151 0.87852341 8.4794686e-39
0.40313005 -1.5628285 0.87832063 8.4744267e-39
0.40030575 -1.5636791 0.87790364 8.4704653e-39
0.39747834 -1.5645311 0.87748599 8.465422e-39
0.39464784 -1.5653843 0.87706774 8.4625395e-39
0.39189523 -1.5665709 0.87648594 8.4589382e-39
0.38919783 -1.5680054 0.87578273 8.4553382e-39
0.38649541 -1.569443 0.8750779 8.4553368e-39
0.38379586 -1.5709169 0.87435532 8.4549767e-39
0.38123679 -1.5730116 0.87332827 8.4549767e-39
0.37867039 -1.5751108 0.87229919 8.4560571e-39
0.37609679 -1.5772153 0.8712675 8.6552181e-39
0.37366265 -1.5799633 0.86992019 8.6526971e-39
0.37125689 -1.5828844 0.86848807 8.5543764e-39
0.36884236 -1.5858185 0.86704963 8.4578578e-39
0.36665553 -1.5898225 0.86508662 8.4549753e-39
0.36446774 -1.5938946 0.86309028 8.456776e-39
0.36251235 -1.5990984 0.86053902 8.558698e-39
0.36069709 -1.6050416 0.85762537 8.1845177e-39
0.3596077 -1.6144587 0.85300845 3.5927751e-39
0.22776531 -1.6391786 0.84088928 1.2526605e-38
0.22374429 -1.6326606 0.84408486 1.2802829e-38
0.22010209 -1.6289533 0.84590232 1.2434411e-38
0.21669929 -1.6270647 0.84682828 1.2434411e-38
0.21339577 -1.625931 0.8473841 1.1697573e-38
0.21016434 -1.625363 0.84766257 1.1697573e-38
0.20705631 -1.6258262 0.84743547 1.0592316e-38
0.20398326 -1.6266085 0.84705192 9.1186401e-39
0.20100535 -1.6282574 0.84624356 9.1186401e-39
0.19809827 -1.6306014 0.84509432 7.0921551e-39
0.19525646 -1.6336281 0.84361053 4.3291925e-39
0.19258058 -1.6383128 0.84131372 4.3291925e-39
0.19014439 -1.6454505 0.83781445 5.5280804e-40
0.097670585 -1.5282476 0.89527434 8.6689508e-40
0.094199739 -1.5180128 0.9002921 8.6581187e-40
0.090923324 -1.5110283 0.90371633 8.6545174e-40
0.087726563 -1.5051866 0.90658027 8.6473147e-40
0.084590808 -1.5002148 0.90901768 8.6436994e-40
0.081502728 -1.4959167 0.91112489 8.640098e-40
0.078464232 -1.4924444 0.91282725 9.5440336e-40
0.075457171 -1.4894432 0.91429859 9.5440477e-40
0.072465837 -1.4865468 0.91571867 9.5332296e-40
0.069499671 -1.4840589 0.9169383 3.068412e-39
0.06654612 -1.4816552 0.91811675 8.9516277e-39
0.063613988 -1.4796562 0.91909677 1.0422433e-38
0.060690537 -1.4776813 0.92006499 3.6187033e-39
0.05777926 -1.4758755 0.92095029 9.5187822e-40
0.054878425 -1.474208 0.92176783 9.5115796e-40
0.051986434 -1.4726425 0.9225353 9.5115796e-40
0.049100857 -1.4710838 0.92329949 9.5043769e-40
0.046226308 -1.4698046 0.92392659 9.5043769e-40
0.04335802 -1.4686004 0.92451698 9.4971742e-40
0.040498681 -1.4677107 0.92495316 5.4543231e-39
0.037643269 -1.4668541 0.9253732 9.5908678e-39
0.034793045 -1.4661907 0.92569834 7.1077165e-39
0.031946342 -1.4656491 0.92596388 5.7732936e-40
0.029102046 -1.4651543 0.92620647 2.0962724e-40
0.026259921 -1.4647202 0.92641932 1.1779175e-40
0.023419578 -1.4643264 0.92661238 1.1779175e-40
0.020580746 -1.4640036 0.92677069 1.1779175e-40
0.017743152 -1.4636996 0.9269197 1.1779175e-40
0.014906075 -1.463536 0.92699981 2.0962724e-40
0.012068798 -1.4634943 0.92702031 2.324359e-39
0.0092316503 -1.4634567 0.92703873 9.128089e-39
0.0063935686 -1.4635175 0.92700893 7.6569246e-39
0.0035535377 -1.4637089 0.92691511 1.1290598e-39
0.00070735812 -1.4642576 0.92664611 1.1779175e-40
-0.0021430328 -1.4649242 0.92631924 1.1779175e-40
-0.0049987696 -1.4657305 0.92592388 1.1779175e-40
-0.0078587197 -1.4665834 0.92550588 1.1779175e-40
-0.010721911 -1.4674282 0.92509168 4.8549387e-40
-0.013588775 -1.4682844 0.92467195 6.4616254e-39
-0.016460799 -1.4692038 0.9242211 8.7603869e-39
-0.019347321 -1.4704947 0.92358828 1.1779175e-40
-0.022241585 -1.4718678 0.92291504 1.1779175e-40
-0.025147259 -1.4734191 0.92215461 1.1779175e-40
-0.028060012 -1.4749944 0.92138225 1.1779175e-40
-0.030987732 -1.4768025 0.92049581 1.1779175e-40
-0.033929843 -1.4787928 0.91952008 1.1779175e-40
-0.036886752 -1.4809484 0.91846323 1.1779175e-40
-0.039863981 -1.4833745 0.91727388 1.1779175e-40
-0.042869993 -1.4862221 0.91587776 1.1779175e-40
-0.045914106 -1.4896351 0.91420454 1.1779175e-40
-0.048989147 -1.4933981 0.91235965 1.1779175e-40
-0.052088805 -1.497347 0.91042364 1.1779175e-40
-0.055236511 -1.5019011 0.90819097 1.1779175e-40
-0.058428593 -1.5069278 0.90572655 1.1779175e-40
-0.061689571 -1.5128061 0.90284473 1.1779175e-40
-0.065066367 -1.5202414 0.89919949 1.1779175e-40
-0.11275506 -1.6675483 0.82698083 2.3509886e-38
-0.11619978 -1.6698644 0.8258453 1.5304475e-38
-0.11982192 -1.674106 0.82376581 1.1616649e-38
-0.12334383 -1.677035 0.82232988 1.2077628e-38
-0.12687838 -1.6799734 0.82088929 1.2077628e-38
-0.13042445 -1.6829089 0.81945008 1.2354214e-38
-0.1339799 -1.6858193 0.81802326 1.2354214e-38
-0.13754804 -1.6887399 0.81659144 1.2354214e-38
-0.14103371 -1.6907125 0.8156243 1.3829344e-38
-0.14451075 -1.6925219 0.81473726 1.3829344e-38
-0.14799544 -1.694335 0.81384838 1.3829344e-38
-0.15148783 -1.6961522 0.81295747 1.3829344e-38
-0.1549872 -1.6979665 0.81206799 1.4198127e-38
-0.15847713 -1.6996276 0.81125355 1.5581061e-38
-0.1618994 -1.700622 0.8107661 1.5581061e-38
-0.16532582 -1.7016175 0.81027812 1.5581061e-38
-0.16875635 -1.7026141 0.80978942 1.5581061e-38
-0.17219104 -1.7036119 0.80930024 1.5581061e-38
-0.17562987 -1.7046109 0.80881047 1.5581061e-38
-0.17905559 -1.705469 0.80838984 1.7609365e-38
-0.18241753 -1.7057825 0.80823612 1.7609365e-38
-0.18578072 -1.7060961 0.80808246 1.7609365e-38
-0.18914519 -1.7064096 0.80792868 1.7609365e-38
-0.19251093 -1.7067233 0.80777484 1.7609365e-38
-0.19587794 -1.7070371 0.807621 1.7609365e-38
-0.19924267 -1.7073244 0.80748016 1.9453278e-38
-0.20252796 -1.7070168 0.80763096 1.9453278e-38
-0.20581207 -1.7067097 0.80778146 1.9453278e-38
-0.20909502 -1.7064031 0.80793184 1.9453278e-38
-0.21237676 -1.7060968 0.80808204 1.9453278e-38
-0.21565726 -1.7057903 0.80823231 1.9453278e-38
-0.21893658 -1.7054842 0.80838245 1.9453278e-38
-0.22214878 -1.7047313 0.80875146 2.1020604e-38
-0.22533181 -1.7038038 0.80920619 2.1020604e-38
-0.22851129 -1.7028773 0.80966038 2.1020604e-38
-0.2316872 -1.7019519 0.81011409 2.1020604e-38
-0.23485987 -1.7010294 0.81056637 2.1020604e-38
-0.23802899 -1.7001079 0.81101811 2.1020604e-38
-0.24116533 -1.6990044 0.81155914 2.2864516e-38
-0.24422209 -1.6974357 0.81232822 2.2587929e-38
-0.2472697 -1.6958497 0.81310576 2.2587929e-38
-0.25031143 -1.6942666 0.81388187 2.2587929e-38
-0.25334734 -1.6926863 0.81465662 2.2587929e-38
-0.25637734 -1.6911091 0.81542993 2.2587929e-38
-0.2594009 -1.6895311 0.81620353 2.2403538e-38
-0.26231563 -1.6873627 0.81726658 2.3509886e-38
-0.26518887 -1.6850078 0.81842113 2.3509886e-38
-0.26805383 -1.6826595 0.81957239 2.3509886e-38
-0.27090681 -1.6802968 0.82073075 2.3509886e-38
-0.27375025 -1.6779341 0.82188904 2.3509886e-38
-0.27658552 -1.6755782 0.823044 2.3509886e-38
-0.27935386 -1.6729131 0.8243506 2.3509886e-38
-0.28202671 -1.6697963 0.82587862 2.3509886e-38
-0.28485054 -1.6675411 0.82698429 2.3509886e-38
-0.54941458 -1.7393191 0.79179442 6.5462485e-39
-0.54645854 -1.7206649 0.80093986 7.0990635e-39
-0.54356843 -1.7024224 0.80988348 7.0994236e-39
-0.5440827 -1.694281 0.81387484 7.1912591e-39
-0.54511803 -1.6877389 0.81708217 7.284175e-39
-0.54614526 -1.6812487 0.82026404 7.744793e-39
-0.54716432 -1.6748097 0.82342082 8.2057712e-39
-0.54817539 -1.6684214 0.82655275 8.8511406e-39
-0.54917854 -1.6620831 0.82966012 8.7589436e-39
-0.55017382 -1.6557944 0.83274329 8.2979668e-39
-0.55328035 -1.655468 0.83290333 1.3183972e-38
-0.55650306 -1.6554675 0.8329035 1.3183972e-38
-0.55972582 -1.6554672 0.83290368 1.2999581e-38
-0.56294858 -1.6554668 0.83290386 1.2907385e-38
-0.56617141 -1.6554667 0.83290392 1.281555e-38
-0.56939423 -1.6554667 0.83290392 1.2723354e-38
-0.57261711 -1.6554667 0.83290392 1.2723354e-38
-0.57583994 -1.6554667 0.83290392 1.2631159e-38
-0.57906276 -1.6554666 0.83290398 1.2631159e-38
-0.58228564 -1.6554666 0.83290398 1.2631159e-38
-0.58550847 -1.6554666 0.83290398 1.2631159e-38
-0.58873135 -1.6554666 0.83290398 1.2631159e-38
-0.59195423 -1.6554666 0.83290398 1.2722994e-38
-0.59517699 -1.6554664 0.83290404 1.2722994e-38
-0.59839988 -1.6554664 0.83290404 1.2631159e-38
-0.60162276 -1.6554664 0.83290404 1.2631159e-38
-0.60484558 -1.6554664 0.83290404 1.2630798e-38
-0.60806847 -1.6554664 0.83290404 1.2630798e-38
-0.61129135 -1.6554666 0.83290398 1.2630798e-38
-0.61451417 -1.6554666 0.83290398 1.2538603e-38
-0.61773705 -1.6554666 0.83290398 1.2446767e-38
-0.62095994 -1.6554667 0.83290392 1.2354212e-38
-0.62418282 -1.6554667 0.83290392 1.217018e-38
-0.62740564 -1.6554667 0.83290392 1.1801398e-38
-0.63062859 -1.6554668 0.83290386 1.1524451e-38
-0.63385141 -1.6554668 0.83290386 1.0971277e-38
-0.63707435 -1.655467 0.8329038 1.0233712e-38
-0.64029694 -1.6554662 0.83290416 9.4039528e-39
-0.64351928 -1.6554651 0.8329047 7.2834534e-39
-0.64657533 -1.6550646 0.83310109 3.7803796e-39
-0.64884728 -1.6527947 0.83421391 2.5814776e-39
-0.65111285 -1.6505312 0.83532357 1.6595213e-39
-0.65337205 -1.6482742 0.83643019 1.3829344e-39
-0.65562397 -1.6460212 0.83753461 8.2976067e-40
-0.65786922 -1.643774 0.8386364 8.2976067e-40
-0.66036904 -1.6421418 0.83943659 8.2976067e-40
-0.66298968 -1.6408052 0.84009182 8.2976067e-40
-0.6656059 -1.6394709 0.84074605 9.219563e-40
-0.66821831 -1.6381403 0.84139836 9.219563e-40
-0.67082649 -1.6368121 0.84204954 1.0141519e-39
-0.6734302 -1.6354859 0.84269965 1.1063476e-39
-0.67602962 -1.6341622 0.84334874 1.1067077e-39
-0.67868471 -1.6329761 0.84393018 1.1985432e-39
-0.68165314 -1.6325054 0.84416091 1.2910976e-39
-0.68461984 -1.632035 0.84439158 1.3829344e-39
-0.6875847 -1.6315649 0.84462202 1.3832932e-39
-0.69054794 -1.6310952 0.84485233 1.3832932e-39
-0.69350928 -1.6306256 0.84508252 1.3832932e-39
-0.69647169 -1.6301624 0.84530962 3.5037927e-39
-0.69964457 -1.6301643 0.84530872 3.4119572e-39
-0.70281589 -1.6301626 0.84530956 3.5037927e-39
-0.70618439 -1.630589 0.8451004 1.3829344e-39
-0.70960855 -1.631132 0.84483427 1.291099e-39
-0.71303511 -1.6316755 0.84456784 1.2907388e-39
-0.71646398 -1.6322192 0.84430128 1.1989033e-39
-0.71989518 -1.6327633 0.84403449 1.1067077e-39
-0.72368133 -1.6340566 0.84340042 1.0145121e-39
-0.72786927 -1.636189 0.84235501 9.219563e-40
-0.73206854 -1.6383271 0.84130675 7.3756504e-40
-0.73628008 -1.640473 0.84025472 8.301194e-40
-0.74050379 -1.6426264 0.83919907 8.2976067e-40
-0.74629134 -1.6480144 0.83655751 1.3829344e-39
-0.75249124 -1.6542118 0.83351916 2.2126937e-39
-0.75631726 -1.6554611 0.83290666 7.1912577e-39
-0.75954032 -1.6554615 0.83290642 9.4039514e-39
-0.7627632 -1.6554617 0.83290637 1.0141518e-38
-0.76598603 -1.6554615 0.83290642 1.0879083e-38
-0.76920879 -1.6554614 0.83290648 1.1432257e-38
-0.77243161 -1.6554613 0.83290654 1.1801398e-38
-0.77565438 -1.6554612 0.8329066 1.217018e-38
-0.7788772 -1.6554611 0.83290666 1.2354212e-38
-0.78209996 -1.655461 0.83290672 1.2446766e-38
-0.78532273 -1.655461 0.83290678 1.2538603e-38
-0.78854555 -1.6554608 0.83290684 1.2630798e-38
-0.79176831 -1.6554607 0.8329069 1.2630798e-38
-0.79499114 -1.6554606 0.83290696 1.2630798e-38
-0.7982139 -1.6554605 0.83290696 1.2631159e-38
-0.80143666 -1.6554602 0.83290702 1.2631159e-38
-0.80465943 -1.6554601 0.83290708 1.2722994e-38
-0.80788219 -1.65546 0.8329072 1.2722994e-38
-0.81110495 -1.6554599 0.83290726 1.2631159e-38
-0.81432772 -1.6554596 0.83290738 1.2631159e-38
-0.81755048 -1.6554595 0.83290744 1.2631159e-38
-0.82077318 -1.6554593 0.83290756 1.2631159e-38
-0.82399595 -1.6554592 0.83290768 1.2631159e-38
-0.82721871 -1.655459 0.83290768 1.2723354e-38
-0.83044147 -1.6554588 0.8329078 1.2723354e-38
-0.83366424 -1.6554587 0.83290786 1.281555e-38
-0.83688694 -1.6554585 0.83290797 1.2907385e-38
-0.84010965 -1.6554582 0.83290815 1.2999581e-38
-0.84333235 -1.655458 0.83290827 1.3183971e-38
-0.84655499 -1.6554576 0.83290833 1.3183972e-38
0.67131501 -1.7286756 0.79325962 8.1988768e-39
0.66656464 -1.7250965 0.79502237 1.8070343e-38
0.66212088 -1.7222804 0.79640919 1.8070343e-38
0.65769196 -1.7194738 0.79779142 1.8070343e-38
0.6532802 -1.7166827 0.79916608 1.8070343e-38
0.64909381 -1.7144599 0.80026078 1.7701561e-38
0.6449697 -1.7123795 0.80128533 1.7701561e-38
0.64085591 -1.7103044 0.80230731 1.7701561e-38
0.63682902 -1.7084413 0.80322492 1.7240583e-38
0.63295227 -1.7069649 0.80395198 1.7240583e-38
0.62908262 -1.7054917 0.80467755 1.7240583e-38
0.62521976 -1.704021 0.80540192 1.7240583e-38
0.62141645 -1.7026981 0.8060534 1.6779605e-38
0.61774403 -1.7017235 0.80653334 1.6779605e-38
0.61407602 -1.7007502 0.80701274 1.6779605e-38
0.6104123 -1.6997778 0.80749154 1.6779605e-38
0.6067512 -1.6988021 0.80797213 1.6779605e-38
0.60319501 -1.6981124 0.80831182 1.6410822e-38
0.59969169 -1.6975657 0.80858105 1.6410822e-38
0.59619969 -1.6970453 0.80883735 1.6410822e-38
0.5927099 -1.6965252 0.80909348 1.6410822e-38
0.58923775 -1.6960502 0.80932742 1.6410822e-38
0.58580846 -1.6956947 0.80950254 1.6410822e-38
0.58246017 -1.695573 0.80956244 1.6410822e-38
0.57909781 -1.6954082 0.80964369 1.6410822e-38
0.57573313 -1.6952344 0.80972928 1.6410822e-38
0.5723691 -1.6950606 0.80981487 1.6410822e-38
0.56909502 -1.695155 0.80976832 1.6410822e-38
0.56584579 -1.695326 0.80968416 1.6410822e-38
0.5625959 -1.6954969 0.80959994 1.6410822e-38
0.55933994 -1.6956514 0.80952388 1.6410822e-38
0.55607659 -1.695785 0.80945802 1.6410822e-38
0.55288619 -1.6961466 0.80927998 1.6410822e-38
0.54972523 -1.6966045 0.80905443 1.6410822e-38
0.54657477 -1.6971009 0.80881 1.6410822e-38
0.54342234 -1.6975976 0.80856532 1.6410822e-38
